7.356409 -5.824763 45.902027
7.446903 -5.815897 45.832161
7.548595 -5.815897 45.832161
7.650287 -5.815897 45.832161
7.763795 -5.824763 45.902027
7.865642 -5.824763 45.902027
8.565511 -5.815897 45.832161
8.601741 -5.771971 45.485996
8.938612 -5.860498 46.183632
8.972278 -5.815897 45.832161
9.032723 -5.789462 45.623833
9.120134 -5.780703 45.554810
9.221211 -5.780703 45.554810
9.322288 -5.780703 45.554810
9.437641 -5.789462 45.623833
9.567864 -5.807059 45.762505
9.684118 -5.815897 45.832161
9.770938 -5.807059 45.762505
9.857494 -5.798247 45.693062
9.928744 -5.780703 45.554810
10.014670 -5.771971 45.485996
10.115594 -5.771971 45.485996
10.201108 -5.763265 45.417389
10.333050 -5.780703 45.554810
10.449935 -5.789462 45.623833
10.551165 -5.789462 45.623833
10.652393 -5.789462 45.623833
8.910409 -4.203569 33.126213
8.954357 -4.189742 33.017246
9.017727 -4.185153 32.981083
9.080958 -4.180574 32.945000
9.134069 -4.171446 32.873066
9.196967 -4.166897 32.837219
9.219556 -4.144300 32.659142
9.281952 -4.139810 32.623760
9.283928 -4.108650 32.378204
9.246402 -4.060621 31.999712
9.248603 -4.030638 31.763428
9.202591 -3.980255 31.366385
9.157715 -3.931116 30.979145
9.151133 -3.899025 30.726254
9.219308 -3.899025 30.726254
10.017766 -3.232694 25.475237
9.973041 -3.200205 25.219204
10.079648 -3.216367 25.346573
10.248029 -3.251953 25.627003
15.404892 -4.861380 38.310089
-21.027658 -4.907495 39.361736
-20.524193 -4.850430 38.904041
-20.202955 -4.794678 38.456871
-20.275969 -4.894698 39.259098
-20.032156 -4.856705 38.954372
-19.843044 -4.831703 38.753834
-19.757057 -4.831703 38.753834
-18.902241 -4.704553 37.733997
-18.748037 -4.686933 37.592670
-19.745558 -5.025747 40.310211
-19.422117 -4.965917 39.830330
-19.156368 -4.920358 39.464912
-18.944658 -4.888324 39.207981
-18.882250 -4.894698 39.259098
-19.560209 -5.093939 40.857162
-19.458109 -5.114759 41.024155
-19.580496 -5.171120 41.476212
-19.515350 -5.178253 41.533421
-19.503902 -5.199769 41.705997
-19.438290 -5.206981 41.763840
-19.399437 -5.221465 41.880013
-19.360367 -5.236030 41.996834
-19.267185 -5.236030 41.996834
-19.174004 -5.236030 41.996834
-19.433167 -5.332717 42.772343
-19.338264 -5.332717 42.772343
-19.243362 -5.332717 42.772343
-19.148458 -5.332717 42.772343
-19.053556 -5.332717 42.772343
-18.958654 -5.332717 42.772343
-18.863752 -5.332717 42.772343
-18.768848 -5.332717 42.772343
-18.673946 -5.332717 42.772343
-18.579044 -5.332717 42.772343
-18.484142 -5.332717 42.772343
-18.415398 -5.340303 42.833183
-18.372629 -5.355539 42.955391
-18.329617 -5.370863 43.078297
-18.312630 -5.394013 43.263977
-18.295496 -5.417364 43.451267
-18.225386 -5.425192 43.514061
-18.155073 -5.433043 43.577030
-18.006269 -5.417364 43.451267
-17.909861 -5.417364 43.451267
-17.839193 -5.425192 43.514061
-17.768322 -5.433043 43.577030
-17.748690 -5.456734 43.767048
-17.780802 -5.496681 44.087452
-17.787151 -5.529062 44.347172
-17.980038 -5.620110 45.077438
-18.124208 -5.696864 45.693062
-18.050217 -5.705522 45.762505
-17.948679 -5.705522 45.762505
-17.847141 -5.705522 45.762505
-17.718678 -5.696864 45.693062
-17.644068 -5.705522 45.762505
-17.596014 -5.722917 45.902027
-17.494167 -5.722917 45.902027
-17.392321 -5.722917 45.902027
-17.264156 -5.714206 45.832161
-17.162466 -5.714206 45.832161
-17.086781 -5.722917 45.902027
-15.625632 -6.064997 48.645767
-15.418066 -6.026056 48.333435
-7.229333 -5.433043 43.577030
-7.132646 -5.433043 43.577030
-7.035957 -5.433043 43.577030
-6.929242 -5.425192 43.514061
-6.822834 -5.417364 43.451267
-6.716733 -5.409558 43.388657
-6.630016 -5.417364 43.451267
-6.543049 -5.425192 43.514061
-6.437198 -5.417364 43.451267
-6.368358 -5.440917 43.640186
-5.981046 -5.440917 43.640186
-5.867211 -5.425192 43.514061
-5.762336 -5.417364 43.451267
-5.657763 -5.409558 43.388657
-5.561492 -5.409558 43.388657
-5.465223 -5.409558 43.388657
-5.361228 -5.401774 43.326229
-5.265096 -5.401774 43.326229
-5.168964 -5.401774 43.326229
-5.043804 -5.370863 43.078297
-4.948223 -5.370863 43.078297
-4.838796 -5.355539 42.955391
-4.743488 -5.355539 42.955391
-4.701838 -5.417364 43.451267
-4.618758 -5.433043 43.577030
-4.541789 -5.456734 43.767048
-4.444679 -5.456734 43.767048
-4.347569 -5.456734 43.767048
-4.250460 -5.456734 43.767048
-4.153350 -5.456734 43.767048
-4.056241 -5.456734 43.767048
-3.953385 -5.448814 43.703526
-3.856416 -5.448814 43.703526
-3.759448 -5.448814 43.703526
-3.662479 -5.448814 43.703526
-3.565511 -5.448814 43.703526
-3.468542 -5.448814 43.703526
-3.376474 -5.456734 43.767048
-3.279364 -5.456734 43.767048
-3.182255 -5.456734 43.767048
-3.085145 -5.456734 43.767048
-2.983699 -5.448814 43.703526
-2.874216 -5.425192 43.514061
-2.769662 -5.409558 43.388657
-2.654269 -5.370863 43.078297
-2.551388 -5.355539 42.955391
-2.449092 -5.340303 42.833183
-2.347376 -5.325153 42.711674
-2.252608 -5.325153 42.711674
-2.160905 -5.332717 42.772343
-2.110981 -5.448814 43.703526
-2.016940 -5.456734 43.767048
-1.917044 -5.448814 43.703526
-1.812185 -5.425192 43.514061
-1.710692 -5.409558 43.388657
-1.614422 -5.409558 43.388657
-1.518152 -5.409558 43.388657
-1.415762 -5.386274 43.201908
-1.318016 -5.378558 43.140015
-1.222297 -5.378558 43.140015
-1.129816 -5.394013 43.263977
-1.036802 -5.409558 43.388657
-0.940532 -5.409558 43.388657
-0.846702 -5.425192 43.514061
-0.752328 -5.440917 43.640186
-0.657406 -5.456734 43.767048
-0.567723 -5.529062 44.347172
-0.281231 -5.705522 45.762505
-0.179421 -5.696864 45.693062
-0.077802 -5.679626 45.554810
0.023274 -5.679626 45.554810
0.124351 -5.679626 45.554810
0.225086 -5.671047 45.485996
0.322117 -5.603333 44.942879
0.420580 -5.586657 44.809120
0.518459 -5.570079 44.676155
0.616671 -5.561827 44.609970
0.714592 -5.553599 44.543976
0.805089 -5.496681 44.087452
0.902909 -5.496681 44.087452
1.002197 -5.504741 44.152096
1.105022 -5.529062 44.347172
1.194621 -5.488645 44.022995
1.290412 -5.480632 43.958729
1.387947 -5.480632 43.958729
1.479005 -5.456734 43.767048
1.576114 -5.456734 43.767048
1.673224 -5.456734 43.767048
1.767764 -5.448814 43.703526
1.862030 -5.440917 43.640186
1.958858 -5.440917 43.640186
2.061662 -5.456734 43.767048
2.180962 -5.512824 44.216930
2.292535 -5.545396 44.478180
2.377177 -5.512824 44.216930
2.482576 -5.529062 44.347172
2.569619 -5.504741 44.152096
2.679369 -5.529062 44.347172
2.794227 -5.561827 44.609970
2.893207 -5.561827 44.609970
2.983347 -5.545396 44.478180
3.072956 -5.529062 44.347172
3.152780 -5.496681 44.087452
3.236385 -5.472643 43.894650
3.328925 -5.464677 43.830757
3.431170 -5.472643 43.894650
3.538881 -5.488645 44.022995
3.636558 -5.488645 44.022995
3.734236 -5.488645 44.022995
3.826319 -5.480632 43.958729
3.929590 -5.488645 44.022995
4.033165 -5.496681 44.087452
4.124945 -5.488645 44.022995
4.204184 -5.464677 43.830757
4.301435 -5.464677 43.830757
4.578631 -5.688232 45.623833
4.679861 -5.688232 45.623833
4.709731 -5.603333 44.942879
4.780906 -5.570079 44.676155
4.865595 -5.553599 44.543976
4.964428 -5.553599 44.543976
5.048326 -5.537217 44.412579
5.276540 -5.570079 44.676155
5.912530 -5.705522 45.762505
6.041613 -5.731654 45.972107
6.162431 -5.749208 46.112907
6.255167 -5.740418 46.042400
6.309090 -5.696864 45.693062
6.410473 -5.696864 45.693062
6.492153 -5.679626 45.554810
6.583270 -5.671047 45.485996
6.644048 -5.636987 45.212807
6.684148 -5.586657 44.809120
6.783569 -5.586657 44.809120
6.882991 -5.586657 44.809120
6.972038 -5.578355 44.742538
7.401233 -5.838621 46.830059
7.505139 -5.838621 46.830059
7.481063 -5.740418 46.042400
7.560102 -5.722917 45.902027
7.661949 -5.722917 45.902027
7.859644 -5.793570 46.468716
7.962749 -5.793570 46.468716
8.349420 -5.705522 45.762505
8.387224 -5.662494 45.417389
8.500817 -5.671047 45.485996
9.007689 -5.802524 46.540539
9.041083 -5.758027 46.183632
9.073969 -5.714206 45.832161
9.161716 -5.705522 45.762505
9.235183 -5.688232 45.623833
9.336411 -5.688232 45.623833
9.437641 -5.688232 45.623833
9.567864 -5.705522 45.762505
9.669401 -5.705522 45.762505
9.770938 -5.705522 45.762505
9.857494 -5.696864 45.693062
9.928744 -5.679626 45.554810
10.029820 -5.679626 45.554810
10.130897 -5.679626 45.554810
10.201108 -5.662494 45.417389
10.333050 -5.679626 45.554810
10.449935 -5.688232 45.623833
10.551165 -5.688232 45.623833
10.652393 -5.688232 45.623833
8.910409 -4.130070 33.126213
8.964186 -4.121002 33.053490
9.027615 -4.116484 33.017246
9.090905 -4.111975 32.981083
9.144052 -4.102987 32.908993
9.196967 -4.094038 32.837219
9.219556 -4.071836 32.659142
9.281952 -4.067425 32.623760
9.283928 -4.036810 32.378204
9.236587 -3.985386 31.965742
9.238857 -3.955989 31.729958
9.202591 -3.910660 31.366385
9.157715 -3.862380 30.979145
9.216969 -3.858410 30.947306
10.063409 -3.208746 25.736521
10.094628 -3.200540 25.670698
10.082821 -3.178860 25.496807
10.208544 -3.200540 25.670698
10.389503 -3.239200 25.980783
15.404892 -4.776378 38.310089
-21.027658 -4.820159 39.361736
-20.610512 -4.764111 38.904041
-20.262405 -4.703344 38.407818
-20.177185 -4.703344 38.407818
-20.091967 -4.703344 38.407818
-20.135162 -4.733532 38.654339
-20.205019 -4.770274 38.954372
-20.196972 -4.788859 39.106140
-20.032156 -4.770274 38.954372
-19.868616 -4.751832 38.803776
-19.757057 -4.745717 38.753834
-19.570324 -4.721411 38.555351
-18.854986 -4.609277 37.639660
-18.771471 -4.609277 37.639660
-19.745558 -4.936307 40.310211
-19.447842 -4.884002 39.883083
-19.156368 -4.832794 39.464912
-18.969358 -4.807590 39.259098
-18.882250 -4.807590 39.259098
-19.454622 -4.976278 40.636612
-19.672523 -5.079093 41.476212
-19.596439 -5.107233 41.705997
-19.558081 -5.121419 41.821846
-19.465286 -5.121419 41.821846
-19.372494 -5.121419 41.821846
-19.360367 -5.142848 41.996834
-19.267185 -5.142848 41.996834
-19.067629 -5.114316 41.763840
-18.948683 -5.107233 41.705997
-19.338264 -5.237815 42.772343
-19.243362 -5.237815 42.772343
-19.148458 -5.237815 42.772343
-18.945910 -5.208223 42.530689
-18.851543 -5.208223 42.530689
-18.810314 -5.222977 42.651173
-18.742228 -5.230385 42.711674
-18.673946 -5.237815 42.772343
-18.579044 -5.237815 42.772343
-18.484142 -5.237815 42.772343
-18.415398 -5.245266 42.833183
-18.320360 -5.245266 42.833183
-18.277321 -5.260231 42.955391
-18.260159 -5.282839 43.140015
-18.321934 -5.328644 43.514061
-18.251762 -5.336356 43.577030
-18.128838 -5.328644 43.514061
-18.006269 -5.320955 43.451267
-17.935741 -5.328644 43.514061
-17.865009 -5.336356 43.577030
-17.897829 -5.375250 43.894650
-17.878622 -5.398860 44.087452
-18.018230 -5.470952 44.676155
-18.080053 -5.520092 45.077438
-18.170446 -5.578550 45.554810
-18.096748 -5.587003 45.623833
-18.050217 -5.603984 45.762505
-17.948679 -5.603984 45.762505
-17.793060 -5.587003 45.623833
-17.691830 -5.587003 45.623833
-17.670923 -5.612514 45.832161
-17.622879 -5.629652 45.972107
-17.520876 -5.629652 45.972107
-17.392321 -5.621070 45.902027
-17.290474 -5.621070 45.902027
-17.188627 -5.621070 45.902027
-17.139034 -5.638259 46.042400
-15.701731 -5.986074 48.882675
-15.593271 -5.986074 48.882675
-7.239811 -5.344090 43.640186
-7.132646 -5.336356 43.577030
-7.046154 -5.344090 43.640186
-6.939270 -5.336356 43.577030
-6.822834 -5.320955 43.451267
-6.726425 -5.320955 43.451267
-6.630016 -5.320955 43.451267
-6.562014 -5.344090 43.640186
-6.455830 -5.336356 43.577030
-6.386870 -5.359625 43.767048
-5.998432 -5.359625 43.767048
-5.875702 -5.336356 43.577030
-5.770663 -5.328644 43.514061
-5.674115 -5.328644 43.514061
-5.569518 -5.320955 43.451267
-5.473109 -5.320955 43.451267
-5.376700 -5.320955 43.451267
-5.265096 -5.305643 43.326229
-5.168964 -5.305643 43.326229
-5.065545 -5.298020 43.263977
-4.948223 -5.275281 43.078297
-4.831903 -5.252738 42.894199
-4.736731 -5.252738 42.894199
-4.695063 -5.313288 43.388657
-4.612084 -5.328644 43.514061
-4.541789 -5.359625 43.767048
-4.444679 -5.359625 43.767048
-4.347569 -5.359625 43.767048
-4.250460 -5.359625 43.767048
-4.153350 -5.359625 43.767048
-4.050354 -5.351846 43.703526
-3.953385 -5.351846 43.703526
-3.856416 -5.351846 43.703526
-3.759448 -5.351846 43.703526
-3.657171 -5.344090 43.640186
-3.565511 -5.351846 43.703526
-3.473583 -5.359625 43.767048
-3.376474 -5.359625 43.767048
-3.279364 -5.359625 43.767048
-3.186887 -5.367426 43.830757
-3.089636 -5.367426 43.830757
-2.988036 -5.359625 43.767048
-2.874216 -5.328644 43.514061
-2.769662 -5.313288 43.388657
-2.654269 -5.275281 43.078297
-2.558688 -5.275281 43.078297
-2.456079 -5.260231 42.955391
-2.350710 -5.237815 42.772343
-2.255808 -5.237815 42.772343
-2.160905 -5.237815 42.772343
-2.110981 -5.351846 43.703526
-2.014013 -5.351846 43.703526
-1.917044 -5.351846 43.703526
-1.814807 -5.336356 43.577030
-1.715637 -5.328644 43.514061
-1.619088 -5.328644 43.514061
-1.522540 -5.328644 43.514061
-1.423934 -5.320955 43.451267
-1.319907 -5.290419 43.201908
-1.224051 -5.290419 43.201908
-1.131442 -5.305643 43.326229
-1.036802 -5.313288 43.388657
-0.940532 -5.313288 43.388657
-0.849157 -5.344090 43.640186
-0.754515 -5.359625 43.767048
-0.657406 -5.359625 43.767048
-0.570242 -5.454766 44.543976
-0.382187 -5.595481 45.693062
-0.281231 -5.603984 45.762505
-0.179694 -5.603984 45.762505
-0.077920 -5.587003 45.623833
0.023310 -5.587003 45.623833
0.124351 -5.578550 45.554810
0.225086 -5.570124 45.485996
0.322117 -5.503614 44.942879
0.420580 -5.487235 44.809120
0.519229 -5.479082 44.742538
0.618503 -5.479082 44.742538
0.715651 -5.462847 44.609970
0.806269 -5.406777 44.152096
0.904233 -5.406777 44.152096
1.006625 -5.430665 44.347172
1.106651 -5.438675 44.412579
1.203418 -5.430665 44.347172
1.296089 -5.406777 44.152096
1.396100 -5.414716 44.216930
1.494207 -5.414716 44.216930
1.576114 -5.359625 43.767048
1.673224 -5.359625 43.767048
1.770333 -5.359625 43.767048
1.862030 -5.344090 43.640186
1.958858 -5.344090 43.640186
2.061662 -5.359625 43.767048
2.174575 -5.398860 44.087452
2.292535 -5.446709 44.478180
2.391222 -5.446709 44.478180
2.497288 -5.462847 44.609970
2.596267 -5.462847 44.609970
2.707279 -5.487235 44.809120
2.806701 -5.487235 44.809120
2.906123 -5.487235 44.809120
2.983347 -5.446709 44.478180
3.054960 -5.398860 44.087452
3.129867 -5.359625 43.767048
3.236385 -5.375250 43.894650
3.328925 -5.367426 43.830757
3.431170 -5.375250 43.894650
3.538881 -5.390967 44.022995
3.636558 -5.390967 44.022995
3.734236 -5.390967 44.022995
3.831913 -5.390967 44.022995
3.935344 -5.398860 44.087452
4.033165 -5.398860 44.087452
4.130985 -5.398860 44.087452
4.204184 -5.367426 43.830757
4.301435 -5.367426 43.830757
4.578631 -5.587003 45.623833
4.679861 -5.587003 45.623833
4.681780 -5.470952 44.676155
4.766762 -5.454766 44.543976
4.836974 -5.422679 44.281956
4.949784 -5.438675 44.412579
5.048326 -5.438675 44.412579
5.177413 -5.470952 44.676155
5.276540 -5.470952 44.676155
5.681476 -5.479082 44.742538
5.867941 -5.561722 45.417389
6.032403 -5.621070 45.902027
6.219579 -5.699261 46.540539
6.245616 -5.629652 45.972107
6.318678 -5.603984 45.762505
6.410473 -5.595481 45.693062
6.492153 -5.578550 45.554810
6.593229 -5.578550 45.554810
6.644048 -5.536669 45.212807
6.684148 -5.487235 44.809120
6.783569 -5.487235 44.809120
6.882991 -5.487235 44.809120
6.982413 -5.487235 44.809120
7.134922 -5.528368 45.145020
7.401540 -5.655555 46.183632
7.446903 -5.612514 45.832161
7.560102 -5.621070 45.902027
7.661949 -5.621070 45.902027
7.811426 -5.655555 46.183632
7.962749 -5.690466 46.468716
8.233940 -5.664242 46.254578
8.273028 -5.621070 45.902027
8.349420 -5.603984 45.762505
8.349443 -5.536669 45.212807
8.993789 -5.690466 46.468716
9.041083 -5.655555 46.183632
9.087801 -5.621070 45.902027
9.189648 -5.621070 45.902027
9.277352 -5.612514 45.832161
9.364790 -5.603984 45.762505
9.466327 -5.603984 45.762505
9.567864 -5.603984 45.762505
9.684118 -5.612514 45.832161
9.770938 -5.603984 45.762505
9.857494 -5.595481 45.693062
9.928744 -5.578550 45.554810
10.029820 -5.578550 45.554810
10.130897 -5.578550 45.554810
10.216517 -5.570124 45.485996
10.348705 -5.587003 45.623833
10.465793 -5.595481 45.693062
10.567175 -5.595481 45.693062
10.668558 -5.595481 45.693062
8.910409 -4.056570 33.126213
8.964186 -4.047664 33.053490
9.027615 -4.043226 33.017246
9.090905 -4.038797 32.981083
9.144052 -4.029969 32.908993
9.196967 -4.021180 32.837219
9.219556 -3.999373 32.659142
9.281952 -3.995040 32.623760
9.283928 -3.964970 32.378204
9.226791 -3.910310 31.931845
9.229133 -3.881497 31.696556
9.193015 -3.837067 31.333744
9.262538 -3.837067 31.333744
10.057884 -3.167888 25.869183
10.097932 -3.162454 25.824810
10.155231 -3.162454 25.824810
10.212531 -3.162454 25.824810
10.331857 -3.181555 25.980783
10.452634 -3.200887 26.138653
15.404892 -4.691376 38.310089
15.629084 -4.733532 38.654339
-21.114994 -4.732824 39.361736
-20.945520 -4.714336 39.207981
-20.831402 -4.708206 39.156994
-20.744520 -4.708206 39.156994
-20.262405 -4.618125 38.407818
-20.177185 -4.618125 38.407818
-20.091967 -4.618125 38.407818
-20.057917 -4.629937 38.506046
-19.972481 -4.629937 38.506046
-20.118587 -4.683843 38.954372
-20.032156 -4.683843 38.954372
-19.766726 -4.641808 38.604782
-19.580656 -4.618125 38.407818
-19.274178 -4.565713 37.971916
-19.045822 -4.531427 37.686771
-18.844278 -4.503247 37.452400
-18.831446 -4.520113 37.592670
-18.771471 -4.525763 37.639660
-18.711346 -4.531427 37.686771
-19.745558 -4.846868 40.310211
-19.525425 -4.814641 40.042194
-19.181507 -4.751457 39.516705
-18.969358 -4.720483 39.259098
-18.882250 -4.720483 39.259098
-18.819679 -4.726645 39.310352
-19.364458 -4.886114 40.636612
-19.558081 -5.028625 41.821846
-19.465286 -5.028625 41.821846
-19.372494 -5.028625 41.821846
-19.279699 -5.028625 41.821846
-19.186907 -5.028625 41.821846
-18.781094 -4.946189 41.136242
-18.689821 -4.946189 41.136242
-18.649504 -4.959740 41.248943
-18.894459 -5.049666 41.996834
-18.853868 -5.063791 42.114307
-18.708096 -5.049666 41.996834
-18.824955 -5.106644 42.470703
-18.757177 -5.113856 42.530689
-18.662811 -5.113856 42.530689
-18.621046 -5.128344 42.651173
-18.552691 -5.135618 42.711674
-18.484142 -5.142912 42.772343
-18.389238 -5.142912 42.772343
-18.294336 -5.142912 42.772343
-18.225323 -5.150228 42.833183
-18.234034 -5.179700 43.078297
-18.375042 -5.247262 43.640186
-18.278214 -5.247262 43.640186
-18.155073 -5.239668 43.577030
-18.058386 -5.239668 43.577030
-17.987730 -5.247262 43.640186
-17.995222 -5.277858 43.894650
-18.002802 -5.308813 44.152096
-18.117357 -5.371826 44.676155
-18.152897 -5.411974 45.010059
-18.161619 -5.444527 45.280796
-18.170446 -5.477474 45.554810
-18.151752 -5.502448 45.762505
-17.995518 -5.485774 45.623833
-17.867218 -5.477474 45.554810
-17.632761 -5.436352 45.212807
-17.665066 -5.477474 45.554810
-17.670923 -5.510823 45.832161
-17.649824 -5.536101 46.042400
-17.547667 -5.536101 46.042400
-17.445509 -5.536101 46.042400
-17.290474 -5.519223 45.902027
-17.241192 -5.536101 46.042400
-17.165281 -5.544580 46.112907
-16.097649 -5.984480 49.771454
-15.727262 -5.887171 48.962162
-15.618626 -5.887171 48.962162
-7.260857 -5.262515 43.767048
-7.142982 -5.247262 43.640186
-7.056381 -5.254877 43.703526
-6.949327 -5.247262 43.640186
-6.832694 -5.232096 43.514061
-6.736145 -5.232096 43.514061
-6.649206 -5.239668 43.577030
-6.581090 -5.262515 43.767048
-6.474569 -5.254877 43.703526
-6.386870 -5.262515 43.767048
-6.298916 -5.270175 43.830757
-6.104414 -5.270175 43.830757
-5.998432 -5.262515 43.767048
-5.867211 -5.232096 43.514061
-5.762336 -5.224546 43.451267
-5.674115 -5.232096 43.514061
-5.577566 -5.232096 43.514061
-5.496905 -5.247262 43.640186
-5.415775 -5.262515 43.767048
-5.303249 -5.247262 43.640186
-5.206421 -5.247262 43.640186
-5.124446 -5.262515 43.767048
-5.012764 -5.247262 43.640186
-4.831903 -5.157565 42.894199
-4.736731 -5.157565 42.894199
-4.695063 -5.217018 43.388657
-4.612084 -5.232096 43.514061
-4.535197 -5.254877 43.703526
-4.444679 -5.262515 43.767048
-4.347569 -5.262515 43.767048
-4.244291 -5.254877 43.703526
-4.147322 -5.254877 43.703526
-4.050354 -5.254877 43.703526
-3.953385 -5.254877 43.703526
-3.856416 -5.254877 43.703526
-3.759448 -5.254877 43.703526
-3.662479 -5.254877 43.703526
-3.570693 -5.262515 43.767048
-3.473583 -5.262515 43.767048
-3.376474 -5.262515 43.767048
-3.284138 -5.270175 43.830757
-3.098657 -5.285563 43.958729
-2.992385 -5.270175 43.830757
-2.882547 -5.247262 43.640186
-2.773659 -5.224546 43.451267
-2.658072 -5.187121 43.140015
-2.558688 -5.179700 43.078297
-2.459588 -5.172301 43.016754
-2.354054 -5.150228 42.833183
-2.255808 -5.142912 42.772343
-2.167062 -5.157565 42.894199
-2.110981 -5.254877 43.703526
-2.014013 -5.254877 43.703526
-1.917044 -5.254877 43.703526
-1.814807 -5.239668 43.577030
-1.718119 -5.239668 43.577030
-1.619088 -5.232096 43.514061
-1.522540 -5.232096 43.514061
-1.425992 -5.232096 43.514061
-1.327525 -5.224546 43.451267
-1.229342 -5.217018 43.388657
-1.131442 -5.209511 43.326229
-1.036802 -5.217018 43.388657
-0.940532 -5.217018 43.388657
-0.850389 -5.254877 43.703526
-0.754515 -5.262515 43.767048
-0.657406 -5.262515 43.767048
-0.570242 -5.355933 44.543976
-0.471409 -5.355933 44.543976
-0.372576 -5.355933 44.543976
-0.281231 -5.502448 45.762505
-0.179694 -5.502448 45.762505
-0.078156 -5.502448 45.762505
0.023310 -5.485774 45.623833
0.124351 -5.477474 45.554810
0.225086 -5.469200 45.485996
0.322117 -5.403896 44.942879
0.420580 -5.387813 44.809120
0.519229 -5.379807 44.742538
0.618503 -5.379807 44.742538
0.716712 -5.371826 44.676155
0.806269 -5.308813 44.152096
0.904233 -5.308813 44.152096
1.003669 -5.316608 44.216930
1.105022 -5.332269 44.347172
1.203418 -5.332269 44.347172
1.301815 -5.332269 44.347172
1.396100 -5.316608 44.216930
1.494207 -5.316608 44.216930
1.578408 -5.270175 43.830757
1.673224 -5.262515 43.767048
1.767764 -5.254877 43.703526
1.862030 -5.247262 43.640186
1.958858 -5.247262 43.640186
2.073719 -5.293290 44.022995
2.174575 -5.301040 44.087452
2.292535 -5.348022 44.478180
2.391222 -5.348022 44.478180
2.497288 -5.363867 44.609970
2.607858 -5.387813 44.809120
2.711314 -5.395843 44.875900
2.806701 -5.387813 44.809120
2.906123 -5.387813 44.809120
2.952816 -5.293290 44.022995
3.041600 -5.277858 43.894650
3.125325 -5.254877 43.703526
3.226977 -5.262515 43.767048
3.328925 -5.270175 43.830757
3.431170 -5.277858 43.894650
3.538881 -5.293290 44.022995
3.641882 -5.301040 44.087452
3.734236 -5.293290 44.022995
3.837523 -5.301040 44.087452
3.935344 -5.301040 44.087452
4.039078 -5.308813 44.152096
4.137042 -5.308813 44.152096
4.198072 -5.262515 43.767048
4.295182 -5.262515 43.767048
4.647304 -5.332269 44.347172
4.717907 -5.301040 44.087452
4.815728 -5.301040 44.087452
4.935226 -5.324427 44.281956
5.048326 -5.340133 44.412579
5.292244 -5.387813 44.809120
5.673047 -5.371826 44.676155
5.780750 -5.379807 44.742538
6.041613 -5.527649 45.972107
6.229207 -5.604660 46.612583
6.245616 -5.527649 45.972107
6.318678 -5.502448 45.762505
6.410473 -5.494098 45.693062
6.492153 -5.477474 45.554810
6.593229 -5.477474 45.554810
6.644048 -5.436352 45.212807
6.684148 -5.387813 44.809120
6.783569 -5.387813 44.809120
6.882991 -5.387813 44.809120
6.982413 -5.387813 44.809120
7.092389 -5.395843 44.875900
7.235089 -5.428202 45.145020
7.346270 -5.436352 45.212807
7.514283 -5.485774 45.623833
7.661949 -5.519223 45.902027
7.811426 -5.553083 46.183632
7.962749 -5.587362 46.468716
8.028683 -5.561614 46.254578
8.106407 -5.544580 46.112907
8.171182 -5.519223 45.902027
8.235367 -5.494098 45.693062
8.249126 -5.436352 45.212807
8.349443 -5.436352 45.212807
9.007689 -5.595997 46.540539
9.054972 -5.561614 46.254578
9.087801 -5.519223 45.902027
9.189648 -5.519223 45.902027
9.291494 -5.519223 45.902027
9.379044 -5.510823 45.832161
9.480736 -5.510823 45.832161
9.582427 -5.510823 45.832161
9.684118 -5.510823 45.832161
9.785810 -5.510823 45.832161
9.857494 -5.494098 45.693062
9.928744 -5.477474 45.554810
10.029820 -5.477474 45.554810
10.130897 -5.477474 45.554810
10.216517 -5.469200 45.485996
10.348705 -5.485774 45.623833
10.465793 -5.494098 45.693062
10.567175 -5.494098 45.693062
10.668558 -5.494098 45.693062
8.866171 -3.996259 33.235905
8.910409 -3.983070 33.126213
8.964186 -3.974325 33.053490
9.037524 -3.974325 33.053490
9.090905 -3.965619 32.981083
9.144052 -3.956951 32.908993
9.207007 -3.952631 32.873066
9.229566 -3.931173 32.694603
9.292019 -3.926909 32.659142
9.273956 -3.888948 32.343426
9.226791 -3.839460 31.931845
9.229133 -3.811169 31.696556
9.202591 -3.771469 31.366385
9.272186 -3.771469 31.366385
10.188164 -3.187157 26.506804
10.043629 -3.123909 25.980783
10.057884 -3.110490 25.869183
10.115282 -3.110490 25.869183
10.216566 -3.123909 25.980783
10.318727 -3.137444 26.093353
10.394637 -3.142891 26.138653
10.525729 -3.164869 26.321442
15.629084 -4.647767 38.654339
-20.945520 -4.627343 39.207981
-20.657640 -4.621325 39.156994
-20.177185 -4.532907 38.407818
-20.091967 -4.532907 38.407818
-20.006748 -4.532907 38.407818
-19.946972 -4.538696 38.456871
-19.887043 -4.544500 38.506046
-19.776318 -4.538696 38.456871
-19.665874 -4.532907 38.407818
-19.382872 -4.487120 38.019859
-18.939806 -4.403716 37.313171
-18.787174 -4.387406 37.174973
-18.750990 -4.398266 37.266991
-18.784544 -4.425653 37.499039
-18.748037 -4.436703 37.592670
-18.687958 -4.442249 37.639660
-18.651072 -4.453382 37.733997
-20.095274 -4.841688 41.024155
-19.577494 -4.738399 40.148972
-19.359350 -4.707018 39.883083
-18.994122 -4.639424 39.310352
-18.906900 -4.639424 39.310352
-19.221167 -4.738399 40.148972
-19.157627 -4.744725 40.202576
-19.558081 -4.935832 41.821846
-19.465286 -4.935832 41.821846
-19.372494 -4.935832 41.821846
-19.252960 -4.928986 41.763840
-18.795336 -4.835101 40.968338
-18.679024 -4.828531 40.912674
-18.638895 -4.841688 41.024155
-18.700739 -4.881592 41.362267
-18.634562 -4.888307 41.419159
-18.593815 -4.901792 41.533421
-18.476175 -4.895040 41.476212
-18.537352 -4.935832 41.821846
-18.757177 -5.019490 42.530689
-18.662811 -5.019490 42.530689
-18.594707 -5.026590 42.590847
-18.500208 -5.026590 42.590847
-18.457922 -5.040850 42.711674
-18.389238 -5.048010 42.772343
-18.268387 -5.040850 42.711674
-18.173618 -5.040850 42.711674
-18.130285 -5.055191 42.833183
-18.375042 -5.150434 43.640186
-18.278214 -5.150434 43.640186
-18.155073 -5.142980 43.577030
-18.058386 -5.142980 43.577030
-17.987730 -5.150434 43.640186
-18.021492 -5.188028 43.958729
-18.002802 -5.210849 44.152096
-18.117357 -5.272699 44.676155
-18.125803 -5.304178 44.942879
-18.134348 -5.336035 45.212807
-18.170446 -5.376398 45.554810
-18.096748 -5.384544 45.623833
-17.968294 -5.376398 45.554810
-17.733080 -5.336035 45.212807
-17.579969 -5.320058 45.077438
-17.506159 -5.328034 45.145020
-17.644068 -5.400910 45.762505
-17.649824 -5.433943 46.042400
-17.547667 -5.433943 46.042400
-17.445509 -5.433943 46.042400
-17.343349 -5.433943 46.042400
-17.241192 -5.433943 46.042400
-17.165281 -5.442265 46.112907
-15.987217 -5.874048 49.771454
-7.271426 -5.172925 43.830757
-7.153350 -5.157908 43.703526
-7.056381 -5.157908 43.703526
-6.959413 -5.157908 43.703526
-6.832694 -5.135548 43.514061
-6.736145 -5.135548 43.514061
-6.668507 -5.157908 43.703526
-6.581090 -5.165406 43.767048
-6.483980 -5.165406 43.767048
-6.386870 -5.165406 43.767048
-6.289761 -5.165406 43.767048
-6.201665 -5.172925 43.830757
-6.095542 -5.165406 43.767048
-5.998432 -5.165406 43.767048
-5.858745 -5.128137 43.451267
-5.762336 -5.128137 43.451267
-5.674115 -5.135548 43.514061
-5.577566 -5.135548 43.514061
-5.528957 -5.180465 43.894650
-5.431564 -5.180465 43.894650
-5.318666 -5.165406 43.767048
-5.221556 -5.165406 43.767048
-5.131906 -5.172925 43.830757
-5.034655 -5.172925 43.830757
-4.831903 -5.062392 42.894199
-4.736731 -5.062392 42.894199
-4.701838 -5.128137 43.451267
-4.612084 -5.135548 43.514061
-4.535197 -5.157908 43.703526
-4.444679 -5.165406 43.767048
-4.347569 -5.165406 43.767048
-4.244291 -5.157908 43.703526
-4.147322 -5.157908 43.703526
-4.050354 -5.157908 43.703526
-3.953385 -5.157908 43.703526
-3.862022 -5.165406 43.767048
-3.770392 -5.172925 43.830757
-3.673141 -5.172925 43.830757
-3.570693 -5.165406 43.767048
-3.473583 -5.165406 43.767048
-3.391261 -5.188028 43.958729
-3.001122 -5.188028 43.958729
-2.890926 -5.165406 43.767048
-2.785718 -5.150434 43.640186
-2.677250 -5.128137 43.451267
-2.562354 -5.091403 43.140015
-2.466635 -5.091403 43.140015
-2.360771 -5.069613 42.955391
-2.265462 -5.069613 42.955391
-2.170153 -5.069613 42.955391
-2.110981 -5.157908 43.703526
-2.014013 -5.157908 43.703526
-1.917044 -5.157908 43.703526
-1.817438 -5.150434 43.640186
-1.718119 -5.142980 43.577030
-1.621431 -5.142980 43.577030
-1.522540 -5.135548 43.514061
-1.425992 -5.135548 43.514061
-1.327525 -5.128137 43.451267
-1.231116 -5.128137 43.451267
-1.131442 -5.113380 43.326229
-1.035311 -5.113380 43.326229
-0.939179 -5.113380 43.326229
-0.850389 -5.157908 43.703526
-0.754515 -5.165406 43.767048
-0.657406 -5.165406 43.767048
-0.570242 -5.257099 44.543976
-0.471409 -5.257099 44.543976
-0.372576 -5.257099 44.543976
-0.281231 -5.400910 45.762505
-0.179694 -5.400910 45.762505
-0.078156 -5.400910 45.762505
0.023310 -5.384544 45.623833
0.124351 -5.376398 45.554810
0.224747 -5.360179 45.417389
0.321637 -5.296273 44.875900
0.420580 -5.288392 44.809120
0.518459 -5.272699 44.676155
0.617586 -5.272699 44.676155
0.715651 -5.264887 44.609970
0.806269 -5.210849 44.152096
0.904233 -5.210849 44.152096
1.002197 -5.210849 44.152096
1.101776 -5.218501 44.216930
1.198125 -5.210849 44.152096
1.301815 -5.233872 44.347172
1.396100 -5.218501 44.216930
1.494207 -5.218501 44.216930
1.585331 -5.195612 44.022995
1.675659 -5.172925 43.830757
1.767764 -5.157908 43.703526
1.862030 -5.150434 43.640186
1.958858 -5.150434 43.640186
2.076755 -5.203220 44.087452
2.171396 -5.195612 44.022995
2.292535 -5.249334 44.478180
2.387696 -5.241591 44.412579
2.497288 -5.264887 44.609970
2.607858 -5.288392 44.809120
2.715361 -5.304178 44.942879
2.806701 -5.288392 44.809120
2.880405 -5.241591 44.412579
2.944207 -5.180465 43.894650
3.032758 -5.165406 43.767048
3.120795 -5.150434 43.640186
3.217623 -5.150434 43.640186
3.328925 -5.172925 43.830757
3.431170 -5.180465 43.894650
3.544062 -5.203220 44.087452
3.641882 -5.203220 44.087452
3.739703 -5.203220 44.087452
3.837523 -5.203220 44.087452
3.941114 -5.210849 44.152096
4.039078 -5.210849 44.152096
4.137042 -5.210849 44.152096
4.198072 -5.165406 43.767048
4.295182 -5.165406 43.767048
4.620087 -5.203220 44.087452
4.704133 -5.188028 43.958729
4.801668 -5.188028 43.958729
4.913548 -5.203220 44.087452
5.048326 -5.241591 44.412579
5.347951 -5.344059 45.280796
5.639577 -5.241591 44.412579
5.755096 -5.257099 44.543976
6.313085 -5.484258 46.468716
6.318678 -5.400910 45.762505
6.410473 -5.392715 45.693062
6.492153 -5.376398 45.554810
6.593229 -5.376398 45.554810
6.644048 -5.336035 45.212807
6.694109 -5.296273 44.875900
6.783569 -5.288392 44.809120
6.882991 -5.288392 44.809120
6.982413 -5.288392 44.809120
7.092389 -5.296273 44.875900
7.191958 -5.296273 44.875900
7.324275 -5.320058 45.077438
7.424292 -5.320058 45.077438
7.546905 -5.336035 45.212807
7.763795 -5.417377 45.902027
7.901778 -5.442265 46.112907
7.979652 -5.425647 45.972107
8.069335 -5.417377 45.902027
8.146345 -5.400910 45.762505
8.185681 -5.360179 45.417389
8.286452 -5.360179 45.417389
8.387224 -5.360179 45.417389
8.999674 -5.425647 45.972107
9.087801 -5.417377 45.902027
9.189648 -5.417377 45.902027
9.291494 -5.417377 45.902027
9.379044 -5.409131 45.832161
9.480736 -5.409131 45.832161
9.582427 -5.409131 45.832161
9.684118 -5.409131 45.832161
9.785810 -5.409131 45.832161
9.857494 -5.392715 45.693062
9.928744 -5.376398 45.554810
10.029820 -5.376398 45.554810
10.130897 -5.376398 45.554810
10.216517 -5.368277 45.485996
10.364409 -5.392715 45.693062
10.465793 -5.392715 45.693062
10.567175 -5.392715 45.693062
10.668558 -5.392715 45.693062
8.856396 -3.918191 33.199261
8.900618 -3.905274 33.089813
8.964186 -3.900987 33.053490
9.037524 -3.900987 33.053490
9.100873 -3.896709 33.017246
9.154057 -3.888183 32.945000
9.207007 -3.879693 32.873066
9.259728 -3.871241 32.801449
9.302108 -3.858631 32.694603
9.273956 -3.817185 32.343426
9.226791 -3.768610 31.931845
9.229133 -3.740841 31.696556
9.202591 -3.701874 31.366385
9.272186 -3.701874 31.366385
10.046661 -3.084895 26.138653
10.026327 -3.060981 25.936028
10.075195 -3.058347 25.913708
10.158920 -3.066263 25.980783
10.243079 -3.074221 26.048208
10.318727 -3.079549 26.093353
10.467327 -3.106468 26.321442
15.589061 -4.550319 38.555351
-20.177185 -4.447688 38.407818
-20.066372 -4.442022 38.358891
-19.981262 -4.442022 38.358891
-19.921530 -4.447688 38.407818
-19.836311 -4.447688 38.407818
-19.700836 -4.436371 38.310089
-19.467230 -4.402762 38.019859
-19.309729 -4.386148 37.876389
-18.800028 -4.289038 37.037796
-18.717850 -4.289038 37.037796
-18.658621 -4.294320 37.083408
-18.714626 -4.326287 37.359467
-18.748037 -4.353293 37.592670
-18.687958 -4.358735 37.639660
-18.721453 -4.386148 37.876389
-20.131445 -4.737755 40.912674
-20.040668 -4.737755 40.912674
-19.761938 -4.693120 40.527225
-19.592907 -4.674246 40.364246
-19.586786 -4.737755 40.912674
-19.286375 -4.686811 40.472755
-19.274294 -4.705786 40.636612
-19.314457 -4.737755 40.912674
-19.650873 -4.843039 41.821846
-19.530954 -4.836321 41.763840
-19.438290 -4.836321 41.763840
-19.292109 -4.822943 41.648312
-18.963638 -4.763644 41.136242
-18.795336 -4.744201 40.968338
-18.704437 -4.744201 40.968338
-18.741026 -4.776695 41.248943
-18.752256 -4.803013 41.476212
-18.660229 -4.803013 41.476212
-18.593815 -4.809638 41.533421
-18.450762 -4.796407 41.419159
-18.384150 -4.803013 41.476212
-18.757177 -4.925124 42.530689
-18.689207 -4.932090 42.590847
-18.594707 -4.932090 42.590847
-18.500208 -4.932090 42.590847
-18.405708 -4.932090 42.590847
-18.311209 -4.932090 42.590847
-18.216709 -4.932090 42.590847
-18.020256 -4.904343 42.351234
-18.027708 -4.932090 42.590847
-18.164440 -4.995684 43.140015
-18.251762 -5.046292 43.577030
-18.155073 -5.046292 43.577030
-18.058386 -5.046292 43.577030
-17.987730 -5.053605 43.640186
-17.942909 -5.068296 43.767048
-17.950161 -5.097935 44.022995
-18.037073 -5.150647 44.478180
-18.045004 -5.181260 44.742538
-18.026083 -5.204459 44.942879
-18.034031 -5.235717 45.212807
-18.014862 -5.259408 45.417389
-17.833397 -5.235717 45.212807
-17.706493 -5.227868 45.145020
-17.579969 -5.220041 45.077438
-17.506159 -5.227868 45.145020
-17.617294 -5.291332 45.693062
-17.649824 -5.331785 46.042400
-17.547667 -5.331785 46.042400
-17.445509 -5.331785 46.042400
-17.316872 -5.323645 45.972107
-17.214870 -5.323645 45.972107
-17.165281 -5.339951 46.112907
-7.163747 -5.068296 43.767048
-7.066638 -5.068296 43.767048
-6.959413 -5.060940 43.703526
-6.842582 -5.046292 43.577030
-6.745893 -5.046292 43.577030
-6.678199 -5.068296 43.767048
-6.581090 -5.068296 43.767048
-6.483980 -5.068296 43.767048
-6.386870 -5.068296 43.767048
-6.289761 -5.068296 43.767048
-6.192651 -5.068296 43.767048
-6.095542 -5.068296 43.767048
-5.989727 -5.060940 43.703526
-5.850303 -5.024478 43.388657
-5.745753 -5.017249 43.326229
-5.649622 -5.017249 43.326229
-5.577566 -5.039000 43.514061
-5.577742 -5.127923 44.281956
-5.479490 -5.127923 44.281956
-5.326407 -5.075674 43.830757
-5.221556 -5.068296 43.767048
-5.131906 -5.075674 43.830757
-5.034655 -5.075674 43.830757
-4.831903 -4.967219 42.894199
-4.736731 -4.967219 42.894199
-4.708632 -5.039000 43.514061
-4.632165 -5.060940 43.703526
-4.541789 -5.068296 43.767048
-4.444679 -5.068296 43.767048
-4.347569 -5.068296 43.767048
-4.250460 -5.068296 43.767048
-4.153350 -5.068296 43.767048
-4.056241 -5.068296 43.767048
-3.964894 -5.075674 43.830757
-3.878936 -5.090493 43.958729
-3.770392 -5.075674 43.830757
-3.673141 -5.075674 43.830757
-3.575891 -5.075674 43.830757
-3.488796 -5.090493 43.958729
-3.059179 -5.188970 44.809120
-2.903587 -5.090493 43.958729
-2.793817 -5.068296 43.767048
-2.692793 -5.060940 43.703526
-2.584571 -5.039000 43.514061
-2.480852 -5.024478 43.388657
-2.370917 -4.995684 43.140015
-2.268698 -4.981411 43.016754
-2.176363 -4.988537 43.078297
-2.110981 -5.060940 43.703526
-2.014013 -5.060940 43.703526
-1.917044 -5.060940 43.703526
-1.817438 -5.053605 43.640186
-1.718119 -5.046292 43.577030
-1.621431 -5.046292 43.577030
-1.524743 -5.046292 43.577030
-1.425992 -5.039000 43.514061
-1.327525 -5.031728 43.451267
-1.231116 -5.031728 43.451267
-1.134707 -5.031728 43.451267
-1.038298 -5.031728 43.451267
-0.939179 -5.017249 43.326229
-0.846702 -5.039000 43.514061
-0.752328 -5.053605 43.640186
-0.657406 -5.068296 43.767048
-0.567723 -5.135475 44.347172
-0.469326 -5.135475 44.347172
-0.370929 -5.135475 44.347172
-0.281231 -5.299373 45.762505
-0.179694 -5.299373 45.762505
-0.078156 -5.299373 45.762505
0.023274 -5.275321 45.554810
0.123976 -5.259408 45.417389
0.224747 -5.259408 45.417389
0.321637 -5.196703 44.875900
0.419955 -5.181260 44.742538
0.518459 -5.173572 44.676155
0.617586 -5.173572 44.676155
0.715651 -5.165908 44.609970
0.807453 -5.120393 44.216930
0.904233 -5.112885 44.152096
1.002197 -5.112885 44.152096
1.100161 -5.112885 44.152096
1.198125 -5.112885 44.152096
1.296089 -5.112885 44.152096
1.404348 -5.150647 44.478180
1.507489 -5.165908 44.609970
1.587652 -5.105399 44.087452
1.678102 -5.083072 43.894650
1.767764 -5.060940 43.703526
1.862030 -5.053605 43.640186
1.970280 -5.083072 43.894650
2.098260 -5.158266 44.543976
2.171396 -5.097935 44.022995
2.295927 -5.158266 44.543976
2.391222 -5.150647 44.478180
2.504709 -5.181260 44.742538
2.607858 -5.188970 44.809120
2.715361 -5.204459 44.942879
2.806701 -5.188970 44.809120
2.880405 -5.143050 44.412579
2.939921 -5.075674 43.830757
3.028356 -5.060940 43.703526
3.116279 -5.046292 43.577030
3.212967 -5.046292 43.577030
3.333778 -5.083072 43.894650
3.436179 -5.090493 43.958729
3.549258 -5.112885 44.152096
3.647222 -5.112885 44.152096
3.745186 -5.112885 44.152096
3.843150 -5.112885 44.152096
3.941114 -5.112885 44.152096
4.039078 -5.112885 44.152096
4.130985 -5.105399 44.087452
4.198072 -5.068296 43.767048
4.276535 -5.046292 43.577030
4.373222 -5.046292 43.577030
4.502490 -5.083072 43.894650
4.599883 -5.083072 43.894650
4.697275 -5.083072 43.894650
4.794668 -5.083072 43.894650
4.884940 -5.075674 43.830757
4.996737 -5.090493 43.958729
5.631271 -5.135475 44.347172
6.313085 -5.381154 46.468716
6.318678 -5.299373 45.762505
6.410473 -5.291332 45.693062
6.492153 -5.275321 45.554810
6.583270 -5.267353 45.485996
6.644048 -5.235717 45.212807
6.694109 -5.196703 44.875900
6.783569 -5.188970 44.809120
6.882991 -5.188970 44.809120
6.982413 -5.188970 44.809120
7.071311 -5.181260 44.742538
7.170586 -5.181260 44.742538
7.291528 -5.196703 44.875900
7.391098 -5.196703 44.875900
7.479521 -5.188970 44.809120
7.658721 -5.243590 45.280796
7.877650 -5.323645 45.972107
7.979652 -5.323645 45.972107
8.069335 -5.315530 45.902027
8.133984 -5.291332 45.693062
8.185681 -5.259408 45.417389
8.286452 -5.259408 45.417389
8.438132 -5.291332 45.693062
8.578568 -5.315530 45.902027
8.985954 -5.315530 45.902027
9.073969 -5.307439 45.832161
9.189648 -5.315530 45.902027
9.277352 -5.307439 45.832161
9.379044 -5.307439 45.832161
9.480736 -5.307439 45.832161
9.597034 -5.315530 45.902027
9.698881 -5.315530 45.902027
9.785810 -5.307439 45.832161
9.857494 -5.291332 45.693062
9.943789 -5.283315 45.623833
10.029820 -5.275321 45.554810
10.146247 -5.283315 45.623833
10.263026 -5.291332 45.693062
10.427703 -5.323645 45.972107
10.529705 -5.323645 45.972107
10.567175 -5.291332 45.693062
10.668558 -5.291332 45.693062
8.900618 -3.831855 33.089813
8.974036 -3.831855 33.089813
9.037524 -3.827648 33.053490
9.100873 -3.823451 33.017246
9.164083 -3.819264 32.981083
9.227154 -3.815085 32.945000
9.279945 -3.806755 32.873066
9.312220 -3.790204 32.730141
9.283928 -3.749449 32.378204
9.226791 -3.697760 31.931845
9.229133 -3.670513 31.696556
9.202591 -3.632279 31.366385
9.272186 -3.632279 31.366385
10.055390 -3.029529 26.161364
10.026327 -3.003435 25.936028
10.075195 -3.000850 25.913708
10.132692 -3.000850 25.913708
10.225389 -3.011216 26.003220
10.318727 -3.021653 26.093353
15.589061 -4.464773 38.555351
15.674606 -4.464773 38.555351
-20.314226 -4.373627 38.506046
-20.177185 -4.362470 38.407818
-20.091967 -4.362470 38.407818
-20.006748 -4.362470 38.407818
-19.921530 -4.362470 38.407818
-19.811043 -4.356913 38.358891
-19.675802 -4.345840 38.261410
-19.566048 -4.340325 38.212852
-19.382872 -4.318404 38.019859
-18.939806 -4.238137 37.313171
-18.740900 -4.212040 37.083408
-18.750990 -4.232892 37.266991
-18.784544 -4.259248 37.499039
-18.748037 -4.269883 37.592670
-18.805492 -4.302108 37.876389
-18.887760 -4.340325 38.212852
-18.874832 -4.356913 38.358891
-19.851860 -4.603198 40.527225
-19.949892 -4.646979 40.912674
-19.496010 -4.646979 40.912674
-19.274294 -4.615623 40.636612
-19.106775 -4.597011 40.472755
-19.223680 -4.646979 40.912674
-19.316622 -4.691600 41.305527
-19.384518 -4.730534 41.648312
-19.185963 -4.704506 41.419159
-18.963638 -4.672372 41.136242
-18.820944 -4.659641 41.024155
-18.781094 -4.672372 41.136242
-18.844282 -4.710987 41.476212
-18.778122 -4.717484 41.533421
-18.711777 -4.724000 41.590786
-18.619495 -4.724000 41.590786
-18.476175 -4.710987 41.476212
-18.208584 -4.665998 41.080120
-18.117437 -4.665998 41.080120
-18.689207 -4.837590 42.590847
-18.594707 -4.837590 42.590847
-18.474077 -4.830758 42.530689
-18.405708 -4.837590 42.590847
-18.285345 -4.830758 42.530689
-18.165321 -4.823944 42.470703
-18.020256 -4.810374 42.351234
-17.951536 -4.817150 42.410885
-18.138453 -4.892956 43.078297
-18.120644 -4.914046 43.263977
-18.102678 -4.935319 43.451267
-18.032290 -4.942451 43.514061
-17.935741 -4.942451 43.514061
-17.890902 -4.956777 43.640186
-17.845800 -4.971187 43.767048
-17.826422 -4.992958 43.958729
-17.964922 -5.059433 44.543976
-17.945730 -5.081985 44.742538
-17.926365 -5.104741 44.942879
-17.906826 -5.127700 45.145020
-17.833397 -5.135400 45.212807
-17.706493 -5.127700 45.145020
-17.632761 -5.135400 45.212807
-17.665066 -5.174245 45.554810
-17.617294 -5.189949 45.693062
-17.622879 -5.221643 45.972107
-17.520876 -5.221643 45.972107
-17.418875 -5.221643 45.972107
-17.316872 -5.221643 45.972107
-17.188627 -5.213683 45.902027
-17.086781 -5.213683 45.902027
-7.174175 -4.978423 43.830757
-7.066638 -4.971187 43.767048
-6.969528 -4.971187 43.767048
-6.842582 -4.949604 43.577030
-6.745893 -4.949604 43.577030
-6.678199 -4.971187 43.767048
-6.581090 -4.971187 43.767048
-6.483980 -4.971187 43.767048
-6.396167 -4.978423 43.830757
-6.289761 -4.971187 43.767048
-6.192651 -4.971187 43.767048
-6.095542 -4.971187 43.767048
-5.981046 -4.956777 43.640186
-5.850303 -4.928208 43.388657
-5.745753 -4.921117 43.326229
-5.641505 -4.914046 43.263977
-5.545511 -4.914046 43.263977
-5.594195 -5.044508 44.412579
-5.495654 -5.044508 44.412579
-5.326407 -4.978423 43.830757
-5.221556 -4.971187 43.767048
-5.146889 -4.992958 43.958729
-5.101486 -5.044508 44.412579
-4.894655 -4.935319 43.451267
-4.798246 -4.935319 43.451267
-4.722281 -4.956777 43.640186
-4.638898 -4.971187 43.767048
-4.548400 -4.978423 43.830757
-4.444679 -4.971187 43.767048
-4.347569 -4.971187 43.767048
-4.250460 -4.971187 43.767048
-4.153350 -4.971187 43.767048
-4.056241 -4.971187 43.767048
-3.964894 -4.978423 43.830757
-3.890294 -5.007579 44.087452
-3.786929 -5.000257 44.022995
-3.689252 -5.000257 44.022995
-3.591574 -5.000257 44.022995
-2.847623 -5.066928 44.609970
-2.700632 -4.978423 43.830757
-2.599597 -4.971187 43.767048
-2.488023 -4.942451 43.514061
-2.384583 -4.928208 43.388657
-2.275199 -4.899966 43.140015
-2.179481 -4.899966 43.140015
-2.110981 -4.963971 43.703526
-2.014013 -4.963971 43.703526
-1.917044 -4.963971 43.703526
-1.817438 -4.956777 43.640186
-1.720609 -4.956777 43.640186
-1.623781 -4.956777 43.640186
-1.526953 -4.956777 43.640186
-1.430125 -4.956777 43.640186
-1.329444 -4.942451 43.514061
-1.232895 -4.942451 43.514061
-1.136347 -4.942451 43.514061
-1.041304 -4.949604 43.577030
-0.941890 -4.935319 43.451267
-0.845481 -4.935319 43.451267
-0.749072 -4.935319 43.451267
-0.655500 -4.956777 43.640186
-0.565226 -5.014921 44.152096
-0.467262 -5.014921 44.152096
-0.369298 -5.014921 44.152096
-0.280804 -5.189949 45.693062
-0.179694 -5.197836 45.762505
-0.078038 -5.189949 45.693062
0.023204 -5.158637 45.417389
0.123976 -5.158637 45.417389
0.223065 -5.120024 45.077438
0.321159 -5.089548 44.809120
0.419955 -5.081985 44.742538
0.518459 -5.074446 44.676155
0.617586 -5.074446 44.676155
0.715651 -5.066928 44.609970
0.809831 -5.037078 44.347172
0.906892 -5.029671 44.281956
1.005144 -5.029671 44.281956
1.100161 -5.014921 44.152096
1.198125 -5.014921 44.152096
1.296089 -5.014921 44.152096
1.421142 -5.112371 45.010059
1.521009 -5.112371 45.010059
1.606469 -5.066928 44.609970
1.683009 -5.000257 44.022995
1.770333 -4.971187 43.767048
1.867443 -4.971187 43.767048
1.970280 -4.985680 43.894650
2.098260 -5.059433 44.543976
2.197093 -5.059433 44.543976
2.313035 -5.097133 44.875900
2.409014 -5.089548 44.809120
2.508436 -5.089548 44.809120
2.603983 -5.081985 44.742538
2.707279 -5.089548 44.809120
2.794227 -5.066928 44.609970
2.884660 -5.051959 44.478180
2.939921 -4.978423 43.830757
3.028356 -4.963971 43.703526
3.125325 -4.963971 43.703526
3.236385 -4.985680 43.894650
3.338645 -4.992958 43.958729
3.451295 -5.014921 44.152096
3.554470 -5.022285 44.216930
3.657949 -5.029671 44.281956
3.756202 -5.029671 44.281956
3.848794 -5.022285 44.216930
3.941114 -5.014921 44.152096
4.039078 -5.014921 44.152096
4.130985 -5.007579 44.087452
4.198072 -4.971187 43.767048
4.282732 -4.956777 43.640186
4.379560 -4.956777 43.640186
4.502490 -4.985680 43.894650
4.599883 -4.985680 43.894650
4.697275 -4.985680 43.894650
4.794668 -4.985680 43.894650
4.877840 -4.971187 43.767048
4.974949 -4.971187 43.767048
5.247483 -5.143122 45.280796
5.347951 -5.143122 45.280796
5.448420 -5.143122 45.280796
5.532250 -5.127700 45.145020
5.664642 -5.066928 44.609970
5.824019 -5.120024 45.077438
6.293660 -5.261810 46.325737
6.318678 -5.197836 45.762505
6.410473 -5.189949 45.693062
6.492153 -5.174245 45.554810
6.583270 -5.166430 45.485996
6.644048 -5.135400 45.212807
6.694109 -5.097133 44.875900
6.783569 -5.089548 44.809120
6.882991 -5.089548 44.809120
6.982413 -5.089548 44.809120
7.060820 -5.074446 44.676155
7.159947 -5.074446 44.676155
7.269860 -5.081985 44.742538
7.380100 -5.089548 44.809120
7.457327 -5.074446 44.676155
7.556454 -5.074446 44.676155
8.094012 -5.229627 46.042400
8.171182 -5.213683 45.902027
8.210448 -5.174245 45.554810
8.324119 -5.182085 45.623833
8.450956 -5.197836 45.762505
8.578568 -5.213683 45.902027
8.972278 -5.205748 45.832161
9.046431 -5.189949 45.693062
9.161716 -5.197836 45.762505
9.263253 -5.197836 45.762505
9.379044 -5.205748 45.832161
9.495188 -5.213683 45.902027
9.597034 -5.213683 45.902027
9.698881 -5.213683 45.902027
9.785810 -5.205748 45.832161
9.857494 -5.189949 45.693062
9.943789 -5.182085 45.623833
10.029820 -5.174245 45.554810
10.146247 -5.182085 45.623833
10.263026 -5.189949 45.693062
10.443647 -5.229627 46.042400
10.545806 -5.229627 46.042400
10.583235 -5.197836 45.762505
10.668558 -5.189949 45.693062
10.769941 -5.189949 45.693062
8.930058 -3.770867 33.199261
8.964186 -3.754310 33.053490
9.027615 -3.750193 33.017246
9.100873 -3.750193 33.017246
9.164083 -3.746086 32.981083
9.227154 -3.741987 32.945000
9.290088 -3.737898 32.908993
9.312220 -3.717583 32.730141
9.384840 -3.717583 32.730141
9.355768 -3.677609 32.378204
9.219428 -3.596400 31.663227
9.193015 -3.558976 31.333744
9.262538 -3.558976 31.333744
9.991901 -2.935774 25.846977
10.014865 -2.925728 25.758535
10.072018 -2.925728 25.758535
10.129169 -2.925728 25.758535
10.300875 -2.958630 26.048208
15.346318 -4.334824 38.164421
15.489894 -4.351369 38.310089
15.654563 -4.373627 38.506046
15.760153 -4.379227 38.555351
-20.945520 -4.366361 39.207981
-20.478224 -4.304705 38.654339
-20.340237 -4.293681 38.555351
-20.202955 -4.282714 38.456871
-20.143354 -4.288190 38.506046
-20.057917 -4.288190 38.506046
-19.972481 -4.288190 38.506046
-19.836311 -4.277251 38.407818
-19.725933 -4.271802 38.358891
-19.640821 -4.271802 38.358891
-19.580656 -4.277251 38.407818
-19.399231 -4.293681 38.555351
-19.190825 -4.266367 38.310089
-19.105824 -4.266367 38.310089
-19.020823 -4.266367 38.310089
-18.959942 -4.271802 38.358891
-18.898907 -4.277251 38.407818
-19.356865 -4.400741 39.516705
-19.761938 -4.513277 40.527225
-19.672018 -4.513277 40.527225
-19.496010 -4.556202 40.912674
